# .PCD v0.7 - Point Cloud Data file format
VERSION 0.7
FIELDS x y z
SIZE 4 4 4
TYPE F F F
COUNT 1 1 1
WIDTH 1374
HEIGHT 1
VIEWPOINT 0 0 0 1 0 0 0
POINTS 1374
DATA ascii
-0.10875206 0.057373814 1.1490458
-0.10927326 0.052184749 1.1543322
-0.10759905 0.046004903 1.1364485
-0.10771449 0.040668182 1.1374902
-0.10745113 0.035195831 1.1345525
-0.10692468 0.029676802 1.1288594
-0.10651245 0.024236411 1.1243947
-0.10580727 0.01878524 1.1168603
-0.10629852 0.013557176 1.1219772
-0.10597237 0.0082166102 1.1184889
-0.10484026 0.0028864695 1.1065164
-0.10311226 -0.0023170609 1.0882773
-0.10165935 -0.0073677176 1.0729634
-0.10214223 -0.012510166 1.0781024
-0.10312051 -0.01778635 1.0884922
-0.10310611 -0.022939516 1.0884259
-0.10290662 -0.028040804 1.0864266
-0.1021755 -0.032950699 1.0788345
-0.10155343 -0.037828092 1.0724121
-0.10116974 -0.042743996 1.0685252
-0.097052917 -0.045857612 1.025221
-0.050499316 -0.039011784 0.53418207
-0.050682981 -0.041687984 0.53627366
-0.050486062 -0.044050489 0.53434455
-0.050114747 -0.046232417 0.53057355
-0.049734168 -0.048368186 0.52670723
-0.049228508 -0.050338011 0.52151793
-0.049117625 -0.052680675 0.52051264
-0.048873786 -0.054862991 0.5181005
-0.048726536 -0.057134196 0.51671368
-0.048797201 -0.059657071 0.51763946
-0.049224038 -0.062640257 0.52234679
-0.049331624 -0.065243915 0.52366912
-0.048841126 -0.067037426 0.51864135
-0.049036074 -0.06975697 0.52089077
-0.048689865 -0.071699113 0.51738983
-0.049664114 -0.075617135 0.52792072
-0.049715608 -0.07818149 0.52864391
-0.36546457 -1.0133069 3.8958759
-0.06411954 -0.19701844 0.68178731
-0.062880263 -0.19635479 0.66820186
-0.061552502 -0.19528644 0.6536544
-0.059552774 -0.19191977 0.63195628
-0.058478404 -0.19138153 0.62006289
-0.057978034 -0.19264309 0.61422926
-0.057335109 -0.19337378 0.60685539
-0.056062646 -0.19188547 0.59279639
-0.053853586 -0.18701738 0.56883043
-0.053013559 -0.18675107 0.5593189
-0.052018642 -0.18584739 0.54815447
-0.051403292 -0.18621925 0.54096925
-0.045802593 -0.17051011 0.480665
-0.04421211 -0.16679995 0.46326032
-0.043894153 -0.16779524 0.45918238
-0.043843102 -0.16979237 0.45786458
-0.043912712 -0.17225777 0.45776781
-0.043895859 -0.17438658 0.45673004
-0.0440952 -0.17738341 0.45789906
-0.043941699 -0.17896315 0.45536467
-0.043469958 -0.17921552 0.44950807
-0.042951714 -0.17922665 0.44315636
-0.042857241 -0.18097547 0.44115603
-0.042807851 -0.18290742 0.43958959
-0.042495742 -0.1836988 0.4353033
-0.041240577 -0.18033519 0.42136878
-0.040531032 -0.17925921 0.41303635
-0.040556584 -0.18140016 0.41219279
-0.040283136 -0.1821914 0.40830123
-0.0398531 -0.18223923 0.40283117
-0.038340751 -0.17724076 0.38647085
-0.038836401 -0.181474 0.39038122
-0.038424678 -0.18147148 0.3851774
-0.038873117 -0.18553314 0.38861188
-0.038204778 -0.18425366 0.38091308
-0.038250193 -0.18638533 0.38038108
-0.037353382 -0.18388313 0.37054271
-0.038023215 -0.18908188 0.37630272
-0.037227891 -0.1869884 0.36762449
-0.036392417 -0.18461172 0.35865077
-0.036144719 -0.18516257 0.35556355
-0.035750184 -0.18492907 0.35112116
-0.035586473 -0.18586166 0.34903711
-0.035100218 -0.18507715 0.34388354
-0.034918014 -0.18586244 0.34180385
-0.034822606 -0.18709585 0.34066519
-0.033636797 -0.18240666 0.32895336
-0.033711225 -0.18449596 0.32965624
-0.032819521 -0.18125688 0.32099497
-0.032360297 -0.1803388 0.31664112
-0.032359306 -0.18195133 0.3168467
-0.032908417 -0.18668446 0.32251835
-0.032302983 -0.18486513 0.31694606
-0.032317441 -0.18656388 0.31751791
-0.031921122 -0.18587214 0.3141132
-0.092364229 0.46427205 0.8615737
-0.090812713 0.45214868 0.84798259
-0.090434209 0.44595748 0.84553707
-0.089409113 0.43664458 0.83722883
-0.089127004 0.43102241 0.83604741
-0.089493282 0.42853189 0.84112406
-0.089147121 0.422629 0.83966291
-0.088377908 0.41477358 0.83433336
-0.088027179 0.40893549 0.83304924
-0.087751292 0.40347499 0.83255845
-0.087385863 0.39763322 0.83128184
-0.084311754 0.37561491 0.80642164
-0.085071482 0.37494826 0.8159436
-0.085661091 0.37346759 0.82387823
-0.085319638 0.36791584 0.82285881
-0.084539331 0.36052498 0.81755912
-0.084600016 0.35675496 0.82034504
-0.087454952 0.36462939 0.85026288
-0.088370346 0.36423758 0.86137259
-0.086581811 0.35274252 0.84605104
-0.086312257 0.34753397 0.84546387
-0.085707679 0.34101808 0.84151196
-0.086928084 0.33345479 0.85908037
-0.088415392 0.33494955 0.87552804
-0.094362795 0.34849298 0.93791848
-0.094315261 0.34382597 0.93907499
-0.085887834 0.29265302 0.86153138
-0.087089792 0.29260117 0.87467384
-0.088325925 0.29254803 0.88812375
-0.082940735 0.26681191 0.83573878
-0.08287733 0.26266116 0.83589381
-0.095519356 0.28908071 0.96576637
-0.096017376 0.28601539 0.97147352
-0.09546759 0.27983135 0.96652216
-0.095315456 0.27484635 0.96553713
-0.094456524 0.26787135 0.95733374
-0.10131282 0.2728411 1.0281043
-0.10701855 0.27801406 1.0866457
-0.10815236 0.27580905 1.0984087
-0.1092092 0.27330339 1.1093484
-0.10857728 0.26655129 1.1030902
-0.10662869 0.25668973 1.0834098
-0.10310587 0.24329907 1.0476898
-0.10406254 0.24060085 1.0574483
-0.10473722 0.22719739 1.0642117
-0.10687522 0.22674553 1.0858402
-0.10835001 0.22471461 1.1006976
-0.11167844 0.22629929 1.1343518
-0.11093649 0.21951284 1.1266321
-0.11112431 0.21459253 1.1283306
-0.10658751 0.19567962 1.0818001
-0.10861637 0.18905927 1.101842
-0.10833302 0.18340704 1.0986695
-0.11001395 0.18101375 1.1153997
-0.11147498 0.17810901 1.1298785
-0.11208421 0.17374471 1.1357065
-0.11117971 0.16704804 1.1261882
-0.1171113 0.15365197 1.1847167
-0.11020691 0.13409671 1.1141235
-0.10936257 0.12786128 1.1052182
-0.10892872 0.12216662 1.1004683
-0.11073825 0.11892249 1.1183821
-0.11282907 0.11579467 1.139129
-0.11158361 0.10920262 1.1261969
-0.11002578 0.1024384 1.110129
-0.11023033 0.097379439 1.1118566
-0.11001441 0.091949575 1.1093529
-0.10878063 0.085738041 1.0966016
-0.10877908 0.080556542 1.096288
-0.11093067 0.076867163 1.1176816
-0.11207834 0.072325006 1.1289662
-0.11192126 0.066893719 1.1271216
-0.11417347 0.062802665 1.1495522
-0.11503793 0.057799831 1.1580212
-0.11435317 0.052010044 1.1509132
-0.11292195 0.04598153 1.1363157
-0.11254057 0.040466812 1.1323051
-0.11218723 0.034997176 1.1285979
-0.11007164 0.029095368 1.1071861
-0.10976009 0.023786016 1.1039443
-0.11131979 0.018822739 1.1195431
-0.11156016 0.013550661 1.1218935
-0.11179489 0.0082552703 1.1242089
-0.11131231 0.002918713 1.119333
-0.10797792 -0.012595112 1.0858637
-0.10790609 -0.017725443 1.0852038
-0.10797376 -0.022878492 1.085968
-0.10764123 -0.027934125 1.0827274
-0.05410289 -0.029499261 0.54472172
-0.054058541 -0.032049458 0.54439312
-0.052767791 -0.03379713 0.53151757
-0.052273951 -0.035970226 0.52667254
-0.052139282 -0.03836054 0.52545148
-0.052425638 -0.041067835 0.52848035
-0.052232802 -0.043404218 0.526685
-0.052324235 -0.045971978 0.52776128
-0.051798664 -0.047976971 0.52261776
-0.051728208 -0.050375119 0.52206868
-0.051619589 -0.052727576 0.52113771
-0.051424909 -0.054977674 0.51933998
-0.051290181 -0.057276186 0.51814932
-0.051582322 -0.060058877 0.52127349
-0.051886767 -0.062884301 0.5245254
-0.051640648 -0.065045245 0.52221239
-0.0518158 -0.067733437 0.52415931
-0.051952787 -0.070386611 0.52572042
-0.052456364 -0.073566943 0.53099203
-0.20432395 -0.47142854 2.0762746
-0.21098268 -0.50688672 2.1437263
-0.067641884 -0.19794363 0.68485415
-0.066059634 -0.19645928 0.66841537
-0.06500043 -0.19640474 0.65724713
-0.063660361 -0.19538718 0.64321619
-0.060699221 -0.18918948 0.61280048
-0.060317986 -0.19087367 0.60841852
-0.06053932 -0.1944571 0.61007535
-0.059079897 -0.19258282 0.59476537
-0.057006132 -0.18853772 0.57326633
-0.055523053 -0.18627681 0.55770576
-0.054809239 -0.18649212 0.54985666
-0.053453676 -0.18442532 0.53555429
-0.049038015 -0.17152575 0.49063033
-0.047681998 -0.16905336 0.47636089
-0.046656303 -0.1676387 0.4653888
-0.045807127 -0.16676898 0.45616895
-0.045856446 -0.16913234 0.45587197
-0.046096351 -0.17221238 0.45742607
-0.04587638 -0.17357531 0.45437792
-0.045669094 -0.17496589 0.45142519
-0.0456127 -0.17692199 0.4499315
-0.045311343 -0.17791092 0.44599175
-0.045188505 -0.17958057 0.44378209
-0.045195986 -0.18176264 0.44282004
-0.045142274 -0.1836964 0.44122651
-0.04492674 -0.18495885 0.43802696
-0.042800952 -0.17824544 0.41623309
-0.042384677 -0.17853032 0.41110426
-0.042198788 -0.17975692 0.40820608
-0.042238683 -0.18193834 0.40748093
-0.041190173 -0.17938359 0.3962732
-0.0400902 -0.17650235 0.384624
-0.03979589 -0.17710179 0.38074464
-0.040461835 -0.18199229 0.3860532
-0.040346675 -0.1833957 0.38391301
-0.040052339 -0.18396518 0.38010505
-0.039316319 -0.18245688 0.37216622
-0.038967762 -0.18269503 0.36796463
-0.039344329 -0.18633418 0.37066182
-0.038700469 -0.18512785 0.36381155
-0.038357422 -0.18531351 0.35987619
-0.03768225 -0.18384612 0.35291657
-0.037589002 -0.18518123 0.35149837
-0.037337985 -0.18572272 0.34869292
-0.037606087 -0.18884715 0.35082263
-0.037528716 -0.19024582 0.3498174
-0.037455931 -0.1916606 0.34894711
-0.035943847 -0.18563505 0.33476397
-0.035148405 -0.18320073 0.32734677
-0.034799773 -0.18304083 0.32417423
-0.033657111 -0.17863344 0.31368038
-0.034646943 -0.18553689 0.32313877
-0.034731492 -0.18764365 0.3242369
-0.034726024 -0.18926784 0.32456806
-0.034387715 -0.18906155 0.32185307
-0.034779739 -0.19287314 0.32604045
-0.094707504 0.4544107 0.84312111
-0.093377195 0.4437831 0.83209848
-0.093265995 0.43901503 0.8321352
-0.093390778 0.43535712 0.83447778
-0.09296336 0.42913878 0.83207136
-0.092327021 0.42200437 0.82795304
-0.092054531 0.41657439 0.82724053
-0.091607563 0.41038746 0.82508671
-0.09131477 0.40492487 0.82442814
-0.090931505 0.39909181 0.82304007
-0.090703778 0.39396915 0.82312822
-0.08708059 0.37427357 0.79237258
-0.086797081 0.36910948 0.7919535
-0.088470213 0.37220293 0.80944878
-0.08895617 0.3702037 0.8161481
-0.088216968 0.36311731 0.81159788
-0.087657407 0.35682938 0.80865258
-0.087330423 0.3515285 0.80780482
-0.088282734 0.35134876 0.81877041
-0.090168901 0.3547565 0.83842194
-0.09121225 0.35471511 0.85025483
-0.090774968 0.34888822 0.84824264
-0.096584596 0.36243623 0.90672147
-0.098261558 0.36426234 0.92448741
-0.093980283 0.33984715 0.88785839
-0.095706671 0.34173951 0.90591377
-0.098151974 0.34600922 0.93077207
-0.09777464 0.34023446 0.92882162
-0.092628449 0.30548429 0.88538033
-0.091849066 0.29456353 0.88021457
-0.092828073 0.2934835 0.89065057
-0.093547337 0.29150516 0.89854831
-0.095157996 0.28787291 0.91585416
-0.098349579 0.284116 0.94894534
-0.10007209 0.28454307 0.96625012
-0.098569587 0.27579013 0.95236057
-0.10784221 0.27722317 1.0444778
-0.10964517 0.27687374 1.0622942
-0.11206219 0.27788311 1.0860236
-0.11279389 0.27457023 1.093381
-0.11280452 0.26946831 1.0937041
-0.11361694 0.26624432 1.1017585
-0.11081072 0.25463119 1.0746772
-0.110888 0.24976812 1.0755186
-0.11104199 0.24506731 1.0770661
-0.1118326 0.24172857 1.0847529
-0.11403216 0.24129938 1.1060712
-0.11414463 0.23634864 1.1071119
-0.11260414 0.22804022 1.0920899
-0.11709414 0.23181035 1.1355218
-0.11767603 0.22761309 1.141021
-0.11806148 0.22299188 1.1445872
-0.11787435 0.21728021 1.1425768
-0.11591563 0.20840043 1.1233748
-0.11568447 0.19746743 1.1206416
-0.11506107 0.18594261 1.1140416
-0.11533238 0.18113835 1.1163646
-0.11669851 0.17797917 1.1292683
-0.11676563 0.17277367 1.1295859
-0.11388716 0.16333753 1.1014069
-0.11276618 0.15660374 1.0902283
-0.11337209 0.15229161 1.0957409
-0.11531352 0.1496577 1.1141485
-0.11391072 0.13230288 1.0995249
-0.11399955 0.12722394 1.1000253
-0.11381893 0.12184846 1.0979286
-0.11541302 0.11830865 1.1129506
-0.11685386 0.11447378 1.1264905
-0.11385199 0.10118225 1.0968812
-0.11399373 0.096126355 1.0979233
-0.11453124 0.091373347 1.1027853
-0.11399243 0.085761696 1.0972946
-0.11493725 0.081247792 1.1060965
-0.11687952 0.077307738 1.1245034
-0.11751285 0.072384834 1.1303248
-0.11755378 0.067066364 1.1304618
-0.11968715 0.05740219 1.1505052
-0.11985174 0.052032985 1.1518776
-0.1156203 0.044940151 1.1110258
-0.11672547 0.040063687 1.1214786
-0.11469886 0.034154195 1.1018623
-0.11403502 0.028772797 1.0953605
-0.11449987 0.02368523 1.0997205
-0.11557921 0.018654583 1.1100016
-0.11115301 -0.012376095 1.067426
-0.11191279 -0.017547945 1.0747828
-0.057155594 -0.021952698 0.54921436
-0.056720778 -0.024364062 0.54512554
-0.056025058 -0.026611967 0.53853637
-0.055239659 -0.028749945 0.53109092
-0.055147648 -0.031208921 0.53031838
-0.055076562 -0.033672325 0.52975422
-0.054933358 -0.036081895 0.52850324
-0.054164324 -0.038038932 0.52123582
-0.054129083 -0.040474743 0.52103406
-0.054370437 -0.043126754 0.52350104
-0.054157671 -0.045419846 0.5216009
-0.054017253 -0.047757559 0.5204013
-0.054127667 -0.050315686 0.5216223
-0.054243695 -0.052889302 0.52290165
-0.054328412 -0.055441529 0.52388287
-0.0544676 -0.058059521 0.52539247
-0.05477671 -0.060879014 0.52854431
-0.054679107 -0.063256092 0.52777362
-0.10370343 -0.16239712 1.0037737
-0.10911751 -0.17583559 1.0564666
-0.11043368 -0.18297656 1.0694882
-0.18009345 -0.44575325 1.7453794
-0.068507351 -0.19447732 0.66152078
-0.067406625 -0.19441675 0.65043479
-0.065608308 -0.19221234 0.63259852
-0.064005926 -0.19042738 0.61663771
-0.062933311 -0.19009696 0.60576272
-0.062627032 -0.19201866 0.60223567
-0.061297789 -0.19072954 0.58884627
-0.060512353 -0.19103639 0.58066058
-0.058216318 -0.18643421 0.55797178
-0.05667533 -0.18407558 0.54252243
-0.051798031 -0.17294383 0.4944779
-0.050147884 -0.16971385 0.47801164
-0.048356678 -0.16585013 0.4602125
-0.047899939 -0.16646102 0.45510978
-0.047890015 -0.16860348 0.45422202
-0.048316393 -0.17230096 0.45742717
-0.048587568 -0.17547664 0.45911214
-0.047988094 -0.17549303 0.45253819
-0.047577016 -0.17615244 0.44772252
-0.047642086 -0.17855904 0.44735768
-0.0476221 -0.18064891 0.44615752
-0.047006961 -0.18045226 0.43936098
-0.047377326 -0.18402767 0.44174865
-0.046365958 -0.18220688 0.43123788
-0.044923324 -0.17857978 0.41674742
-0.044376686 -0.17842402 0.41059425
-0.044488449 -0.1808957 0.41052523
-0.04459285 -0.18334728 0.41036913
-0.044475079 -0.18488477 0.40816066
-0.041998308 -0.17649786 0.38436672
-0.04169732 -0.17712843 0.38056046
-0.042071551 -0.18063061 0.38292712
-0.041616257 -0.18056759 0.37776539
-0.041154027 -0.18043278 0.37259096
-0.040620394 -0.17993966 0.36682987
-0.040982153 -0.18340512 0.36920378
-0.041204393 -0.18627274 0.37036204
-0.041626874 -0.19007488 0.3733699
-0.039974004 -0.18434472 0.35785443
-0.039637476 -0.1845946 0.35423163
-0.039661605 -0.18650989 0.35391679
-0.039831921 -0.18912144 0.3549889
-0.03992606 -0.19138335 0.35546803
-0.039856419 -0.19286127 0.35457981
-0.038213547 -0.18838577 0.33971572
-0.037477136 -0.186459 0.33317703
-0.037103381 -0.18628609 0.32994619
-0.037110955 -0.18801108 0.33018732
-0.0364873 -0.18651013 0.32488731
-0.03735815 -0.19265983 0.33297324
-0.036910161 -0.19202735 0.32938087
-0.036554772 -0.19184007 0.32667497
-0.03702648 -0.19599871 0.3314282
-0.039341617 -0.21004219 0.35278952
-0.097025558 0.4452911 0.82605416
-0.095584802 0.43452275 0.81454504
-0.096339799 0.43376601 0.82194817
-0.097611099 0.43524578 0.83397847
-0.094862461 0.418865 0.81183082
-0.093752958 0.40988955 0.80382776
-0.093826048 0.40612945 0.80610514
-0.09425886 0.40390444 0.81162322
-0.093926005 0.3983942 0.81067371
-0.094096981 0.395028 0.81417388
-0.090615571 0.37647265 0.78608334
-0.08998993 0.36996049 0.78273809
-0.090097919 0.36648697 0.78580844
-0.090527982 0.36430004 0.7917307
-0.091334388 0.36357394 0.80098879
-0.091560714 0.36049372 0.8051852
-0.091300368 0.35549888 0.8050887
-0.091842942 0.35361809 0.81205606
-0.093442 0.35571194 0.8283819
-0.094264358 0.35474378 0.83783638
-0.09456028 0.35174584 0.84258783
-0.095097929 0.34961089 0.84945607
-0.095844626 0.34818861 0.85815853
-0.10186328 0.36562434 0.91413885
-0.10161779 0.3603248 0.91395026
-0.099380575 0.34374955 0.89755023
-0.1006175 0.34365308 0.91049248
-0.10158956 0.34255591 0.92099965
-0.10060868 0.33487386 0.91372538
-0.10090195 0.33146268 0.91793603
-0.10143271 0.32879588 0.92424405
-0.099691816 0.31881806 0.90976179
-0.098464623 0.31061217 0.89985496
-0.097799785 0.29575768 0.8972165
-0.098193564 0.29267895 0.90184605
-0.1015758 0.29834354 0.93389565
-0.10042691 0.29060245 0.92424351
-0.099114358 0.27818522 0.91378003
-0.10216282 0.27341503 0.94394189
-0.11497455 0.2877059 1.0645598
-0.11477038 0.28220475 1.0630921
-0.11537249 0.27866873 1.0690433
-0.11748562 0.27866438 1.0889543
-0.11556518 0.26405954 1.0716648
-0.11463182 0.2569426 1.0631975
-0.11540472 0.25365716 1.0705135
-0.11616596 0.2502794 1.0776832
-0.11843688 0.24487261 1.0988575
-0.12054905 0.24399805 1.1184541
-0.12160445 0.24084677 1.1282114
-0.12241106 0.23712179 1.1356277
-0.12308909 0.23308319 1.1418195
-0.12316046 0.22786324 1.1423541
-0.12368649 0.22345848 1.1470778
-0.12339767 0.21757127 1.1442188
-0.12086959 0.20785832 1.1205769
-0.12003324 0.2012009 1.1126032
-0.11765275 0.1920951 1.0903035
-0.12232549 0.17844917 1.1324648
-0.12150168 0.17196441 1.1245219
-0.11826476 0.16224088 1.0942461
-0.11822404 0.15704454 1.093544
-0.11813483 0.15178944 1.0923871
-0.11850446 0.14711173 1.0954673
-0.1190158 0.12704688 1.0988153
-0.11868844 0.12153677 1.0954508
-0.11884793 0.1165325 1.0965836
-0.12010981 0.11254731 1.1078883
-0.11789372 0.095092408 1.0864908
-0.11926381 0.091011852 1.0988123
-0.11941074 0.085931912 1.0998712
-0.11838271 0.080044739 1.0901213
-0.12179511 0.077056281 1.121268
-0.12306168 0.0725068 1.1326634
-0.11901771 0.044249225 1.0943919
-0.11838296 0.038865853 1.0883974
-0.11802208 0.033615679 1.0849402
-0.11799917 0.028478459 1.0846096
-0.11888921 0.023523869 1.0926887
-0.1187753 0.018336892 1.09156
-0.11299824 0.012531761 1.038409
-0.059168138 -0.014019529 0.54384851
-0.058160845 -0.016309734 0.53464824
-0.057998311 -0.018785968 0.53322148
-0.058843978 -0.021618469 0.54107398
-0.058296926 -0.023952285 0.53612942
-0.057487071 -0.026119122 0.52877456
-0.05748884 -0.028619586 0.5288918
-0.057407614 -0.031075271 0.52825314
-0.057398342 -0.033565983 0.52828389
-0.056789283 -0.035679054 0.52279991
-0.056314778 -0.037829548 0.51855868
-0.056290854 -0.040261041 0.51847142
-0.056594133 -0.042938717 0.52140397
-0.056560189 -0.045372244 0.52123553
-0.056470044 -0.047755286 0.52055323
-0.056580771 -0.050309103 0.52172673
-0.057009399 -0.053169034 0.52583647
-0.057345156 -0.05597559 0.52909464
-0.057868943 -0.059003055 0.53409237
-0.058682442 -0.062384054 0.54176944
-0.11020837 -0.16507964 1.0205361
-0.11823618 -0.19252737 1.0956855
-0.43800092 -0.97983414 4.0624743
-0.073145255 -0.19543442 0.67587519
-0.07190349 -0.195243 0.6639623
-0.069401942 -0.19146809 0.64040136
-0.068566635 -0.19214493 0.63219911
-0.06711176 -0.19098599 0.61826193
-0.066082634 -0.19093066 0.60822672
-0.065838233 -0.19308719 0.60538411
-0.065205209 -0.19406584 0.59893483
-0.062250335 -0.18797821 0.57115269
-0.06086022 -0.18642668 0.55773127
-0.059077989 -0.18353611 0.54071105
-0.057576541 -0.18137509 0.52625859
-0.051631998 -0.16713884 0.47053957
-0.050640427 -0.1661309 0.46076807
-0.050101224 -0.16654044 0.45509759
-0.050778802 -0.17100066 0.46043956
-0.050757632 -0.17313634 0.45939654
-0.050531395 -0.17456178 0.45646349
-0.05031094 -0.17598777 0.45355251
-0.050262794 -0.17800483 0.45216244
-0.048464175 -0.17374232 0.43502489
-0.049212068 -0.17856324 0.44073117
-0.049210224 -0.18069628 0.43967429
-0.048781868 -0.18124446 0.4347845
-0.047694564 -0.17927846 0.42402637
-0.047152366 -0.17929062 0.41812584
-0.046951387 -0.18056791 0.41524655
-0.046839707 -0.18217503 0.41314709
-0.046702903 -0.18367365 0.41081947
-0.04605167 -0.18311484 0.403979
-0.044153105 -0.17748541 0.38625774
-0.043975681 -0.17868429 0.38364977
-0.043741461 -0.17963451 0.38056993
-0.043531187 -0.18066373 0.37773058
-0.042862978 -0.17975426 0.3709676
-0.042835917 -0.18150331 0.36980739
-0.042527292 -0.18204473 0.36627015
-0.043740861 -0.18914147 0.37588078
-0.04424493 -0.19324496 0.37942699
-0.042341359 -0.18677191 0.36242127
-0.041953728 -0.18688622 0.3585043
-0.042515095 -0.19123544 0.36277708
-0.041995641 -0.19072491 0.35791308
-0.040999353 -0.1879829 0.3490884
-0.041662641 -0.19283563 0.35448784
-0.039392389 -0.18404059 0.33502379
-0.039498873 -0.18625553 0.33586875
-0.039923098 -0.18999183 0.33950216
-0.03916546 -0.18808919 0.33316886
-0.038695272 -0.18751366 0.32935843
-0.038587522 -0.18866932 0.32870808
-0.038143437 -0.18815656 0.32526308
-0.037498273 -0.18660451 0.3201637
-0.038247086 -0.19199385 0.32703534
-0.038221415 -0.19352689 0.32735825
-0.098415129 0.43284783 0.80283272
-0.099150442 0.43195039 0.80953598
-0.099088937 0.4275535 0.80994207
-0.098713398 0.4218199 0.80797368
-0.097716808 0.41348949 0.80109155
-0.097098298 0.40682626 0.79746038
-0.097034939 0.4025175 0.79853702
-0.096981674 0.39825538 0.79983741
-0.096212462 0.39108759 0.7953431
-0.095833145 0.38555244 0.79415554
-0.094130866 0.37478155 0.7820487
-0.094440766 0.37208015 0.7866978
-0.094791517 0.3695122 0.79175258
-0.094608173 0.36485526 0.79238391
-0.094641544 0.36104035 0.79484504
-0.094879806 0.35799572 0.79903728
-0.095527485 0.35645896 0.80668879
-0.097321406 0.35909766 0.82405502
-0.097568512 0.35594386 0.82833928
-0.096547261 0.34819517 0.82179862
-0.09757784 0.34784597 0.83267587
-0.098343916 0.34647903 0.841281
-0.10431862 0.35448816 0.89858323
-0.10397071 0.34464124 0.89934713
-0.10393675 0.34019771 0.9008221
-0.10425003 0.3368791 0.90523601
-0.10430533 0.33271155 0.90734082
-0.10417473 0.32795411 0.90775228
-0.10555734 0.32790822 0.92129278
-0.10497433 0.32172295 0.917615
-0.10463341 0.31631815 0.91596806
-0.10382123 0.30088449 0.9124071
-0.10302088 0.29427221 0.90641302
-0.10769553 0.30313745 0.94856173
-0.12121417 0.29068059 1.0753772
-0.12084159 0.28475177 1.0725168
-0.12091094 0.27987695 1.0735263
-0.12438039 0.28272501 1.1046844
-0.12331606 0.27516723 1.0955341
-0.11895103 0.255514 1.0572065
-0.12119778 0.25528997 1.0773407
-0.11643846 0.24041311 1.0351555
-0.11649179 0.23566914 1.0357137
-0.12517439 0.24801861 1.1129622
-0.12612158 0.24463999 1.1214011
-0.12692605 0.24091157 1.1285368
-0.12753837 0.23675938 1.1339312
-0.12754719 0.23146097 1.1339288
-0.12769546 0.22640911 1.1351368
-0.12743253 0.22063294 1.1326628
-0.12685862 0.21435323 1.1274
-0.12653664 0.20853654 1.1243542
-0.12517491 0.20107643 1.1120503
-0.12217299 0.19116347 1.0851628
-0.12235271 0.15575649 1.0848209
-0.12254982 0.15090089 1.0862516
-0.1189108 0.13651024 1.0533676
-0.12278806 0.12561199 1.0867254
-0.12339452 0.12109067 1.0917631
-0.11862916 0.11147112 1.0492862
-0.12202943 0.089242026 1.0778329
-0.11102033 0.048808184 0.97904581
-0.12032203 0.042870123 1.0607241
-0.1223262 0.038486995 1.0782404
-0.12328812 0.033652354 1.0865836
-0.062139664 -0.0063422089 0.54747826
-0.061029486 -0.0087719364 0.53772587
-0.061085548 -0.011325366 0.53825825
-0.060719393 -0.013787595 0.53507936
-0.060326718 -0.01621218 0.5316754
-0.060230043 -0.018695923 0.53088862
-0.059961174 -0.021110985 0.52859253
-0.059632856 -0.023480231 0.5257799
-0.059729673 -0.026007228 0.5267235
-0.059351195 -0.028315535 0.52348316
-0.059369382 -0.030798072 0.52374834
-0.059468389 -0.033327423 0.52473378
-0.059167456 -0.035624217 0.52219647
-0.058882765 -0.037906393 0.51980764
-0.058928568 -0.040391371 0.52034158
-0.058753666 -0.042719696 0.51893175
-0.059230655 -0.045534596 0.52328521
-0.059289567 -0.048050415 0.52395058
-0.059549533 -0.050742473 0.52639741
-0.12362707 -0.14655459 1.0954424
-0.10420102 -0.24944237 0.92448252
-0.10321897 -0.25139248 0.91534859
-0.074597724 -0.19411835 0.65996408
-0.073772147 -0.19504407 0.65217835
-0.071857341 -0.19297577 0.63474232
-0.070159063 -0.19133843 0.61920547
-0.069485702 -0.19239745 0.61269242
-0.069250539 -0.1946319 0.61000967
-0.06872692 -0.19602403 0.60475099
-0.063326053 -0.18589705 0.55591643
-0.062015917 -0.18463521 0.54371297
-0.061258014 -0.18493132 0.53633362
-0.053769343 -0.16680487 0.46936786
-0.052611344 -0.16540475 0.45851913
-0.052548632 -0.16739722 0.45719567
-0.052585725 -0.1697066 0.45670328
-0.052769985 -0.17250013 0.45744753
-0.052380301 -0.1734089 0.45318192
-0.052464478 -0.17587373 0.45298365
-0.051374916 -0.174362 0.44263259
-0.050433706 -0.17326912 0.43356213
-0.051093295 -0.17766419 0.43822438
-0.050983112 -0.17940548 0.43624097
-0.049848758 -0.17749092 0.42548946
-0.049540762 -0.17845857 0.42179438
-0.049461633 -0.18023457 0.42003202
-0.04908774 -0.18091756 0.41575596
-0.048557565 -0.18098688 0.41016051
-0.048031759 -0.1810285 0.40461522
-0.047458977 -0.18084732 0.39869437
-0.046750084 -0.18009402 0.39166081
-0.046519481 -0.18114412 0.38866425
-0.046060089 -0.18127453 0.38378763
-0.045785096 -0.18210007 0.38048771
-0.045922231 -0.18455903 0.38064808
-0.045720045 -0.18565159 0.37803808
-0.045232493 -0.18555661 0.37313175
-0.044479184 -0.18431972 0.3661139
-0.045011725 -0.18840213 0.36974952
-0.04600621 -0.1944817 0.37722874
-0.044809889 -0.1912917 0.36682647
-0.043941665 -0.18941629 0.35922021
-0.043203469 -0.18803442 0.35278064
-0.043250192 -0.19003998 0.35284561
-0.042425912 -0.18818596 0.34589908
-0.04206894 -0.18835554 0.34285748
-0.040812783 -0.18443196 0.33257872
-0.040889498 -0.18648244 0.33324763
-0.04034372 -0.18567444 0.32892507
-0.039430361 -0.1831139 0.3216792
-0.03912349 -0.18331902 0.3194499
-0.038475137 -0.1818843 0.31449667
-0.038282014 -0.18256651 0.31332448
-0.038005825 -0.18283303 0.31153131
-0.038374957 -0.18620783 0.31509021
-0.1084792 0.45802602 0.8493917
-0.10287853 0.43026325 0.80619138
-0.10262281 0.4250887 0.80504149
-0.10222337 0.41934493 0.80295449
-0.10123062 0.41122299 0.79637861
-0.10072536 0.40514123 0.79379344
-0.10044112 0.39998016 0.7930994
-0.10030162 0.39541236 0.79368663
-0.10007665 0.39052218 0.79371923
-0.099402361 0.38391465 0.79028153
-0.099226169 0.37926489 0.79087859
-0.099526837 0.37643284 0.7953521
-0.099212408 0.37127492 0.79496509
-0.098337874 0.36406848 0.79010224
-0.098100111 0.35926402 0.79035342
-0.098670088 0.35740435 0.79712677
-0.10042945 0.35975975 0.81355453
-0.10107822 0.35804045 0.82102096
-0.10053396 0.35209104 0.81877095
-0.10048627 0.34790432 0.82051533
-0.10145291 0.34719267 0.8305164
-0.10201956 0.3450509 0.83722347
-0.10382792 0.3470138 0.85411102
-0.10613854 0.34624484 0.8771103
-0.1058209 0.33250946 0.87993383
-0.10680325 0.3313238 0.88978964
-0.10895683 0.33364612 0.9093774
-0.1104137 0.33369055 0.92312908
-0.11102875 0.33110794 0.92979681
-0.10995357 0.3235032 0.92222941
-0.11477933 0.32851863 0.96547592
-0.11539219 0.3256568 0.97191197
-0.12409174 0.28071341 1.0571232
-0.12677456 0.28171107 1.0803934
-0.12818436 0.27971619 1.0927776
-0.1284707 0.27520195 1.0955403
-0.12739594 0.2576113 1.0870615
-0.12963653 0.25177062 1.1064357
-0.13038816 0.24801457 1.1129217
-0.13147593 0.24482432 1.1222414
-0.12963085 0.23620307 1.1064931
-0.12829545 0.22863771 1.0950638
-0.12954408 0.22568089 1.1056597
-0.13140371 0.22366416 1.1214403
-0.13039345 0.21672854 1.1127008
-0.1297466 0.20527315 1.1068734
-0.12108529 0.177039 1.0324057
-0.13013434 0.16424143 1.1082131
-0.12221538 0.13469145 1.0396066
-0.10945833 0.089982167 0.92920935
-0.10823939 0.084650308 0.91860878
-0.11493337 0.066897549 0.97419488
-0.11469104 0.062168617 0.97192651
-0.12381501 0.042349979 1.0482961
-0.065338314 0.0014390995 0.55284673
-0.063107558 -0.00113447 0.53397113
-0.063463651 -0.0062182331 0.53701162
-0.063509271 -0.008763209 0.53742558
-0.062595621 -0.011141098 0.5297308
-0.062276248 -0.013575436 0.52707344
-0.061898161 -0.015969075 0.52392757
-0.062205136 -0.018536609 0.52658892
-0.062066413 -0.020978061 0.52548575
-0.062037073 -0.02344976 0.5253166
-0.061730664 -0.025803292 0.52280879
-0.061541717 -0.028186113 0.52130258
-0.061652042 -0.030702852 0.52233845
-0.061843541 -0.033272099 0.52406943
-0.061812785 -0.035728194 0.5239237
-0.061893545 -0.038250748 0.52472937
-0.061747596 -0.040630579 0.5236184
-0.06174342 -0.043097705 0.5237146
-0.097022489 -0.083247378 0.82384753
-0.13070114 -0.14874262 1.1120776
-0.11786277 -0.20013876 1.005868
-0.71627241 -1.4741496 6.110981
-0.079702966 -0.1959184 0.67720503
-0.078584112 -0.19631164 0.66723281
-0.077152058 -0.19582048 0.65457767
-0.075628251 -0.19497818 0.64112353
-0.073820494 -0.19327053 0.62524593
-0.072828464 -0.19358659 0.61625808
-0.072484501 -0.19557182 0.61272347
-0.07179042 -0.19657087 0.60619628
-0.066329777 -0.18692565 0.55874705
-0.065412417 -0.18695705 0.5502975
-0.063600369 -0.18432215 0.53431064
-0.061817329 -0.18162745 0.51856881
-0.05597873 -0.16671218 0.46886301
-0.055158511 -0.16647592 0.46123898
-0.053250514 -0.16284744 0.44451991
-0.053926326 -0.16707134 0.44935039
-0.054330014 -0.17049535 0.45185971
-0.054448597 -0.17304555 0.45195216
-0.054118253 -0.1741605 0.44828478
-0.054877236 -0.17879823 0.45359671
-0.055345856 -0.182539 0.45645046
-0.055071563 -0.18383732 0.45313889
-0.051483721 -0.17392002 0.4226054
-0.051324263 -0.17543443 0.42025864
-0.05144475 -0.17790416 0.42017877
-0.051352385 -0.17963898 0.41833663
-0.050615214 -0.17908494 0.41124016
-0.050027929 -0.17900825 0.40537548
-0.049758933 -0.1800362 0.40209931
-0.049330149 -0.18045811 0.39754373
-0.04939143 -0.18265803 0.39694867
-0.04916336 -0.18378125 0.39404204
-0.048161685 -0.18196337 0.38497958
-0.04806966 -0.18353856 0.38323763
-0.048036445 -0.1853333 0.38200167
-0.048044786 -0.18728741 0.38113996
-0.047290545 -0.18623893 0.37429425
-0.045696203 -0.18178807 0.36089978
-0.045351293 -0.1822301 0.35747078
-0.046059027 -0.18691635 0.36240605
-0.046042085 -0.1886894 0.36170867
-0.045494951 -0.18826704 0.35693592
-0.044998184 -0.18801132 0.35265517
-0.044652428 -0.18835288 0.3496531
-0.043851979 -0.18673061 0.34318599
-0.042723656 -0.18363501 0.33424789
-0.042445075 -0.18413551 0.33204663
-0.041672982 -0.18245301 0.32606775
-0.04120652 -0.18205911 0.32255837
-0.040573042 -0.18088326 0.31781429
-0.039402023 -0.17723879 0.30892166
-0.040398028 -0.18333504 0.31708825
-0.040391833 -0.18492271 0.3174648
-0.039300479 -0.18149833 0.30936331
-0.039065149 -0.18197422 0.30804318
-0.113093 0.45914003 0.85132372
-0.10637712 0.42369139 0.80216748
-0.10560153 0.41654053 0.79730868
-0.10510316 0.410532 0.79471767
-0.10435752 0.40360561 0.79041833
-0.10448781 0.40009052 0.79290831
-0.10471925 0.39694887 0.79631972
-0.1053232 0.39518714 0.80271029
-0.10335371 0.38382196 0.78957742
-0.10342476 0.38010776 0.79209477
-0.1033423 0.37582979 0.79351336
-0.10347544 0.37233397 0.79664797
-0.10214205 0.36360729 0.78850943
-0.10177305 0.35837919 0.78780591
-0.10310601 0.35910723 0.80030841
-0.10366014 0.35705 0.80680329
-0.10430541 0.3552607 0.81401849
-0.10441213 0.35160813 0.81702113
-0.10535615 0.35073471 0.82656258
-0.10581188 0.34818196 0.83225894
-0.10600533 0.3447412 0.83585572
-0.10659753 0.34256697 0.8425566
-0.10839573 0.34417653 0.8587746
-0.1083748 0.33994156 0.86054868
-0.10716656 0.33202967 0.85280675
-0.10615591 0.32481527 0.84653145
-0.10871042 0.32845017 0.86864114
-0.10995016 0.32796669 0.88023388
-0.11305263 0.33287263 0.90673167
-0.11482143 0.33366427 0.92252886
-0.11495707 0.32963672 0.92515576
-0.11548097 0.32669723 0.93084145
-0.11901736 0.33212391 0.96078497
-0.1201258 0.3305966 0.97110927
-0.12079155 0.32778278 0.97780055
-0.12109836 0.31929958 0.98269063
-0.12194167 0.31683281 0.99063885
-0.12287769 0.31453851 0.99928701
-0.1227998 0.30961582 0.99962974
-0.10949248 0.2550067 0.89481211
-0.11726655 0.25958097 0.95994174
-0.11737061 0.25529686 0.96122754
-0.11664873 0.24923995 0.95570076
-0.13470557 0.2515527 1.1054267
-0.13512316 0.24713521 1.1089427
-0.13576397 0.24308529 1.1142553
-0.13671561 0.23953061 1.1220849
-0.13171406 0.22570154 1.0810219
-0.13392107 0.22433235 1.099092
-0.13431102 0.21981947 1.1022201
-0.13335389 0.21312372 1.0942669
-0.1310406 0.20438641 1.0751632
-0.12106907 0.17952015 0.99306267
-0.12349251 0.17361371 1.0125751
-0.11504751 0.12634015 0.94149947
-0.11693649 0.12391675 0.95669407
-0.11482495 0.11284602 0.93889314
-0.11462206 0.10823786 0.93697089
-0.11801648 0.10236456 0.96417946
-0.11667933 0.096716858 0.95299292
-0.11543322 0.091243967 0.94255948
-0.11405066 0.085764356 0.93102282
-0.11371257 0.072388768 0.927562
-0.068129621 0.011924878 0.55463493
-0.067530267 0.0092225196 0.54971778
-0.066569589 0.0065308227 0.54186934
-0.066131771 0.0039442102 0.53828663
-0.066019826 0.00139818 0.53736585
-0.065040588 -0.0011242473 0.52939487
-0.065243058 -0.0036372235 0.53105146
-0.065483995 -0.0086881425 0.53305727
-0.065159813 -0.011151408 0.53045398
-0.064547323 -0.0135293 0.52551174
-0.064883992 -0.016095534 0.52830559
-0.064985685 -0.018620338 0.52919501
-0.064508721 -0.020964907 0.52537996
-0.064388335 -0.023402384 0.52447623
-0.06413693 -0.02577794 0.5225125
-0.064050138 -0.02820665 0.5218966
-0.064676188 -0.030970022 0.52709687
-0.066299498 -0.036847562 0.5405497
-0.11676612 -0.21759757 0.9582206
-0.11351745 -0.2508401 0.92929637
-0.11178944 -0.25132149 0.91469556
-0.08470691 -0.19695169 0.69230008
-0.083844528 -0.19817151 0.68480033
-0.081716187 -0.19628413 0.6669386
-0.080190048 -0.19570272 0.65397412
-0.078230269 -0.1939289 0.63745606
-0.077569157 -0.19527361 0.63149804
-0.076160118 -0.1946559 0.61942571
-0.075382486 -0.19556782 0.61246479
-0.074708253 -0.19669217 0.60631406
-0.072847635 -0.1945955 0.59051579
-0.070435323 -0.19086075 0.57024473
-0.06884072 -0.18918766 0.55659294
-0.067799076 -0.18893282 0.54739863
-0.066060454 -0.1866288 0.53256714
-0.058048874 -0.16622788 0.46724436
-0.057498325 -0.16686292 0.46204785
-0.056421638 -0.16590852 0.45260817
-0.0560956 -0.16710742 0.44917279
-0.056115817 -0.16932607 0.44847757
-0.056489605 -0.17262673 0.45056486
-0.056483705 -0.17478123 0.44958124
-0.056823924 -0.17801967 0.45131075
-0.057097156 -0.18107179 0.45246232
-0.054600392 -0.17525394 0.43167019
-0.053235363 -0.17292018 0.41986683
-0.053559504 -0.17603314 0.42137754
-0.053495605 -0.17788073 0.41980484
-0.053219315 -0.17900904 0.41655034
-0.053418841 -0.18173486 0.41700354
-0.052404728 -0.18030043 0.40798637
-0.051831558 -0.18032204 0.40242764
-0.051601168 -0.18150526 0.39954549
-0.051504355 -0.18314578 0.3977094
-0.051660497 -0.18568805 0.39783764
-0.050492018 -0.18343018 0.38780597
-0.049949773 -0.18338154 0.38264704
-0.049833976 -0.18487321 0.38080442
-0.04963991 -0.18606256 0.37841463
-0.049304355 -0.18670124 0.37500918
-0.046267256 -0.17698024 0.35117149
-0.047053266 -0.1817967 0.35645336
-0.047276955 -0.18447939 0.35753372
-0.047024608 -0.18530343 0.35509285
-0.046885751 -0.18655966 0.35359627
-0.047182184 -0.18955396 0.35546798
-0.045017716 -0.18258975 0.33889908
-0.044360481 -0.18163033 0.33377871
-0.044223879 -0.18277203 0.33266422
-0.04312161 -0.17987508 0.32437086
-0.042290732 -0.17803587 0.31819898
-0.043055408 -0.18291107 0.32411146
-0.042200439 -0.18090208 0.31790686
-0.041152831 -0.17799416 0.31031165
-0.042168941 -0.184011 0.31834745
-0.041725516 -0.18368095 0.31543583
-0.040898837 -0.18161492 0.30967522
-0.040331613 -0.1806474 0.30592027
-0.042081427 -0.19010353 0.31981313
-0.11060601 0.43241116 0.80164576
-0.11133231 0.43112704 0.80745947
-0.11041971 0.42350328 0.80158788
-0.11007436 0.4181017 0.80002224
-0.10869721 0.40884474 0.79112995
-0.10904435 0.4061116 0.79495496
-0.10889754 0.40153143 0.79534769
-0.10923421 0.39872685 0.79942638
-0.10757691 0.38869283 0.78902739
-0.10703432 0.38276798 0.78688586
-0.10702242 0.37876144 0.78873569
-0.1084944 0.3799524 0.80163085
-0.10843299 0.3757211 0.80328721
-0.11018616 0.37771466 0.8184672
-0.10901669 0.36966789 0.81198001
-0.10786389 0.36176366 0.80558538
-0.10744738 0.35638696 0.80465925
-0.10742348 0.3523289 0.80665332
-0.10973091 0.35583258 0.82617706
-0.11061603 0.35460567 0.83502364
-0.11156169 0.35350505 0.84432209
-0.11052712 0.34613308 0.83858436
-0.11070774 0.3425982 0.84199679
-0.11196549 0.34234342 0.85356879
-0.11086306 0.3348664 0.84708852
-0.11021338 0.32882181 0.84397286
-0.11109539 0.32733846 0.85252309
-0.11290389 0.32848528 0.86815649
-0.11424729 0.32816225 0.88019133
-0.11473372 0.32530984 0.88557893
-0.11615089 0.32502595 0.89810449
-0.11840624 0.32695144 0.91708702
-0.11858258 0.32304621 0.91992503
-0.12309929 0.33079135 0.95641708
-0.12427343 0.32934356 0.96693081
-0.12473059 0.32593516 0.97180998
-0.12353848 0.31824437 0.96375966
-0.1241546 0.31523302 0.96973908
-0.12590827 0.31502211 0.98455578
-0.1269073 0.31282121 0.99342722
-0.12620239 0.30640918 0.98889554
-0.12413277 0.29678661 0.97358495
-0.11759958 0.27245507 0.92388672
-0.11642177 0.26541415 0.91531408
-0.11551255 0.25906289 0.90878808
-0.11612827 0.25614253 0.91420662
-0.11950614 0.25916666 0.94133884
-0.1211373 0.2582173 0.95468491
-0.12119414 0.2538496 0.95558274
-0.11923236 0.24532427 0.94051152
-0.13576376 0.20893863 1.0728428
-0.1340338 0.2013118 1.0590696
-0.12609962 0.17071272 0.99579233
-0.13051659 0.16702402 1.0302674
-0.1172101 0.13263018 0.92437196
-0.11632577 0.12732093 0.9171657
-0.11751509 0.12427007 0.92630315
-0.12032678 0.12278659 0.94821626
-0.12029127 0.1182949 0.94768369
-0.12000348 0.11356712 0.94516253
-0.12035226 0.10943946 0.94765407
-0.12334634 0.10759346 0.97096825
-0.12360154 0.10323801 0.97271717
-0.12333514 0.0984473 0.9703635
-0.11908845 0.086235762 0.93646777
-0.069161378 0.016780408 0.54251814
-0.069997407 0.01439063 0.5490222
-0.069570452 0.011726042 0.54562825
-0.068886176 0.0090592448 0.54022563
-0.067872256 0.0064119929 0.5322473
-0.068437949 0.003930571 0.53666514
-0.067578793 0.0013781859 0.52991873
-0.067384563 -0.0011216224 0.5283953
-0.067582257 -0.0036280826 0.52995384
-0.067789637 -0.0061500659 0.53159708
-0.067780435 -0.0086597418 0.531551
-0.06765426 -0.011149459 0.53059602
-0.067522682 -0.013628735 0.52960694
-0.067025155 -0.016010851 0.52575558
-0.067553185 -0.018639078 0.52995706
-0.067393288 -0.021091131 0.52876985
-0.067284442 -0.023549207 0.52799064
-0.14298819 -0.18774422 1.1289227
-0.1428995 -0.19292063 1.128438
-0.13051504 -0.19070345 1.0311306
-0.12944889 -0.19394025 1.0228308
-0.12956168 -0.19890806 1.0238235
-0.12763533 -0.20067813 1.008678
-0.12131196 -0.25364164 0.95655495
-0.11916809 -0.25357303 0.93921262
-0.088216133 -0.19751386 0.69408125
-0.086295567 -0.19641005 0.67850924
-0.083285443 -0.19264375 0.65435886
-0.082722276 -0.19440508 0.64941579
-0.081629552 -0.19486053 0.64028621
-0.078727961 -0.19085002 0.61695594
-0.078734092 -0.19378112 0.61639273
-0.078234248 -0.19544862 0.61183089
-0.076158077 -0.1930826 0.59492129
-0.075499959 -0.19421054 0.58907139
-0.074352197 -0.19401205 0.57937562
-0.071940608 -0.19038393 0.55982542
-0.070154831 -0.18825649 0.54514778
-0.069603801 -0.18935587 0.54004884
-0.060800064 -0.16765745 0.47099051
-0.059589069 -0.1665252 0.46083638
-0.059046905 -0.16719711 0.45584047
-0.058954865 -0.16912013 0.45429096
-0.058966413 -0.17133731 0.45350379
-0.058006089 -0.17069541 0.44521976
-0.059061382 -0.17598838 0.45236832
-0.059016246 -0.17803979 0.45103645
-0.058890816 -0.17984262 0.44905913
-0.056600712 -0.17494549 0.43058547
-0.056678522 -0.1772853 0.43013492
-0.057003319 -0.18041258 0.4315235
-0.055935718 -0.17910546 0.42236099
-0.055843279 -0.18087782 0.4205631
-0.055313934 -0.18121202 0.41547042
-0.054540008 -0.1806967 0.40855512
-0.054076251 -0.18116318 0.40398198
-0.053746313 -0.1820485 0.4004246
-0.05352867 -0.18329397 0.39772198
-0.053480007 -0.18510816 0.39629441
-0.053923264 -0.18863964 0.39852691
-0.051999949 -0.18383732 0.3833279
-0.051210992 -0.18294492 0.37658051
-0.051703915 -0.18662086 0.37931207
-0.051857997 -0.18909779 0.37960246
-0.050832924 -0.18724269 0.37133828
-0.049998544 -0.18602116 0.36456406
-0.050015122 -0.18793532 0.36408138
-0.049223501 -0.18678395 0.35780469
-0.048494346 -0.18581328 0.35208112
-0.047139756 -0.18236893 0.34191886
-0.04600165 -0.17966981 0.33342814
-0.047583319 -0.18760982 0.34473655
-0.046678212 -0.18577011 0.33811262
-0.045039292 -0.18091573 0.32625955
-0.04467525 -0.18110815 0.32372126
-0.044106852 -0.18043759 0.31977761
-0.044530511 -0.18382013 0.32310167
-0.041206364 -0.17162439 0.29928374
-0.041193139 -0.17309509 0.2995536
-0.041704442 -0.17678827 0.30370483
-0.041629743 -0.17801353 0.30365261
-0.042028725 -0.18127634 0.30711624
-0.043602791 -0.1896805 0.31924856
-0.11422079 0.43059441 0.79816973
-0.114444 0.42734838 0.80021966
-0.11478857 0.4245353 0.80332309
-0.11523723 0.42207879 0.80735868
-0.11543559 0.41868246 0.80983859
-0.11286909 0.40534261 0.79307872
-0.11343915 0.40333828 0.79850543
-0.11228047 0.3952083 0.79191023
-0.11069013 0.38565713 0.78236926
-0.11101528 0.38282496 0.78646928
-0.11195127 0.38205418 0.79502189
-0.11391686 0.3846935 0.81102431
-0.11652987 0.3893556 0.83178997
-0.11628932 0.38439846 0.83228433
-0.11490452 0.37571704 0.82459438
-0.11435407 0.3698329 0.82287407
-0.11229615 0.35916659 0.81026083
-0.11321229 0.35805324 0.81907642
-0.1184204 0.3660658 0.86129975
-0.11807365 0.36077681 0.86098802
-0.11672946 0.3525005 0.85332495
-0.11659576 0.3479324 0.85443157
-0.11556185 0.34071973 0.8488633
-0.11422318 0.33269322 0.84095502
-0.11433709 0.32894132 0.84365708
-0.11606852 0.32977709 0.85825777
-0.11703914 0.32835469 0.86720622
-0.11787093 0.32647836 0.87508297
-0.11863575 0.32435957 0.88241428
-0.11923801 0.32174751 0.88848346
-0.12065618 0.32126489 0.90058678
-0.12095309 0.31773549 0.90427023
-0.12242368 0.31722617 0.91667777
-0.12865657 0.32418674 0.9660942
-0.12786922 0.3176358 0.9614383
-0.12797984 0.31333971 0.96345687
-0.12984285 0.31326351 0.97861624
-0.13024177 0.30957425 0.98269206
-0.12942874 0.30301911 0.97755438
-0.12766489 0.29432985 0.96515173
-0.12449221 0.2825689 0.94200224
-0.12336127 0.27559602 0.93421561
-0.12230204 0.26886147 0.92690247
-0.12112606 0.26195014 0.91863835
-0.12138245 0.25816929 0.92118049
-0.12326641 0.25777373 0.93603438
-0.1259402 0.25886708 0.95685619
-0.12554371 0.2535682 0.95431203
-0.12381607 0.24565656 0.94159538
-0.12168547 0.2153527 0.92699182
-0.11875886 0.18472376 0.9050746
-0.1182645 0.17973089 0.90127808
-0.1162723 0.16424492 0.88588315
-0.11679094 0.16080624 0.88972574
-0.11952428 0.1304183 0.90915483
-0.11952871 0.12615404 0.90897065
-0.12312935 0.12555656 0.93612236
-0.12542091 0.12341377 0.95330584
-0.1251183 0.11864728 0.95076412
-0.12424149 0.11337841 0.94385928
-0.12531379 0.10988125 0.95176041
-0.12761277 0.1073393 0.96897191
-0.12968998 0.1044545 0.98449183
-0.129566 0.099727064 0.9833011
-0.074694671 0.030814629 0.56563276
-0.07300093 0.027508589 0.55271584
-0.072524801 0.024738872 0.54902756
-0.07196486 0.021977577 0.54471344
-0.07161478 0.019312875 0.54199636
-0.071036845 0.01661987 0.53756332
-0.070872635 0.014050167 0.53626966
-0.07123749 0.011578181 0.53898734
-0.0706985 0.0089655118 0.5348748
-0.069606714 0.003854915 0.52657181
-0.068904161 0.0013550265 0.52124816
-0.070254631 -0.0011276288 0.5314638
-0.070040166 -0.0036257401 0.52984965
-0.070409454 -0.0061595994 0.53265983
-0.070362195 -0.0086685186 0.53232747
-0.07021188 -0.011157687 0.53122365
-0.070099816 -0.013643562 0.53041732
-0.071777932 -0.021661032 0.54329145
-0.15383431 -0.11235599 1.167156
-0.14457384 -0.17788279 1.1006279
-0.1472367 -0.18641785 1.1211129
-0.14792794 -0.2295602 1.1273733
-0.13108914 -0.21747501 0.99898404
-0.087183908 -0.19134472 0.66079813
-0.085867643 -0.19152276 0.65032834
-0.085046805 -0.19272947 0.64358419
-0.083155297 -0.19141299 0.62871581
-0.081630968 -0.19081968 0.61660677
-0.08024469 -0.19044518 0.60552186
-0.078234114 -0.18846765 0.58971179
-0.078015685 -0.19072784 0.58738798
-0.077713579 -0.19276491 0.58439696
-0.076476693 -0.19242834 0.57434887
-0.073718071 -0.18812007 0.5528698
-0.072798155 -0.18837263 0.5451771
-0.072103478 -0.18915029 0.53914672
-0.064736009 -0.17213522 0.48327577
-0.062552802 -0.16856413 0.46618491
-0.061786041 -0.16870464 0.45965052
-0.061844565 -0.17107329 0.45922792
-0.062406138 -0.17485559 0.4624944
-0.06238135 -0.17701414 0.46137035
-0.061507616 -0.17673163 0.45394477
-0.061446987 -0.17875208 0.45249939
-0.061028108 -0.1797132 0.44838959
-0.060447652 -0.18016285 0.4430775
-0.059986256 -0.18093015 0.43862617
-0.059443906 -0.18141741 0.43357384
-0.05908389 -0.18242894 0.4298442
-0.058256619 -0.18195532 0.42271739
-0.057442855 -0.18146525 0.41570461
-0.05673233 -0.18124695 0.40945834
-0.056349933 -0.18203786 0.40559691
-0.05576992 -0.18215601 0.40033394
-0.05546334 -0.18313557 0.39705989
-0.055567272 -0.1854634 0.39674512
-0.055255506 -0.18639635 0.39349079
-0.052986059 -0.18063313 0.37637502
-0.052875731 -0.18214555 0.37467921
-0.053700946 -0.1869062 0.37964967
-0.05406351 -0.19009903 0.38138801
-0.053090755 -0.18857481 0.37378082
-0.052716341 -0.18912773 0.37047675
-0.053106092 -0.19242275 0.37262157
-0.052148506 -0.19081564 0.36540154
-0.050097995 -0.18510191 0.35063565
-0.049519081 -0.18473159 0.34627569
-0.049344711 -0.1858435 0.34483612
-0.049488477 -0.18815246 0.34570771
-0.048638124 -0.18665665 0.33972293
-0.047842197 -0.18531087 0.33420375
-0.046967994 -0.18360227 0.32821706
-0.046002772 -0.18147214 0.32166663
-0.044107683 -0.17557172 0.30867368
-0.043944795 -0.17649288 0.30785945
-0.043209124 -0.17508155 0.30309042
-0.042810947 -0.17499717 0.30073959
-0.043468304 -0.17923674 0.30586541
-0.043924388 -0.18268615 0.30964437
-0.048138231 -0.20193124 0.34003276
-0.1184193 0.43102756 0.79887521
-0.11845277 0.4270646 0.79953486
-0.11940326 0.42637393 0.80659056
-0.12021285 0.42511946 0.81290466
-0.1197179 0.41924071 0.81059349
-0.1176519 0.40794861 0.79780513
-0.11822369 0.40585437 0.80306131
-0.11884542 0.40389043 0.80883145
-0.11792634 0.39670041 0.80425602
-0.11559915 0.38488543 0.79015672
-0.11662937 0.38429365 0.79909658
-0.1164581 0.3797133 0.79990977
-0.12019009 0.38773686 0.8276704
-0.12135338 0.3873049 0.8378877
-0.12217711 0.38572061 0.84583801
-0.11917466 0.37213206 0.8272835
-0.1184558 0.3658025 0.82452112
-0.11881124 0.36280304 0.82922572
-0.11990944 0.36202148 0.83912528
-0.12254911 0.36576495 0.85985464
-0.12276795 0.36218452 0.8636145
-0.12174008 0.35495403 0.85854554
-0.12122374 0.34926826 0.85700619
-0.12056597 0.34321544 0.85439092
-0.12107933 0.33632612 0.86193234
-0.12128612 0.33271807 0.86526155
-0.12163107 0.32947004 0.86951679
-0.12196895 0.32617927 0.87366188
-0.12241792 0.32315838 0.87854308
-0.12325288 0.32111228 0.88614076
-0.12415315 0.31917638 0.89415872
-0.12573145 0.31889814 0.90701878
-0.13174319 0.32505992 0.95329171
-0.13390683 0.32578069 0.97031218
-0.13401857 0.32143098 0.97241497
-0.14085488 0.32811266 1.024513
-0.14154267 0.32483384 1.0306609
-0.13809894 0.30740613 1.0076162
-0.13675338 0.2996951 0.99870723
-0.13027912 0.27652153 0.95298165
-0.12744008 0.26170623 0.93351823
-0.12738694 0.25720426 0.93370354
-0.13281393 0.25900179 0.97452742
-0.13401204 0.25671691 0.98377335
-0.14671922 0.26588055 1.0782521
-0.14590433 0.25937241 1.0725679
-0.14487857 0.2525529 1.0652875
-0.14468932 0.24723352 1.0641149
-0.14721368 0.24647036 1.0828636
-0.14664686 0.2404643 1.0788391
-0.12438283 0.18679985 0.91525298
-0.12292234 0.18036754 0.90449262
-0.12058319 0.16446057 0.88711292
-0.11902931 0.15823661 0.87558842
-0.11663861 0.15103622 0.85789502
-0.11620432 0.14646664 0.85457897
-0.075518198 0.045705196 0.55302399
-0.075717561 0.043214779 0.55436319
-0.075376004 0.040420555 0.55174679
-0.074766003 0.037515186 0.54717171
-0.07490094 0.034999982 0.5480544
-0.075139642 0.03252038 0.54970127
-0.07549461 0.030070633 0.55220419
-0.073890239 0.026883529 0.5403834
-0.074029513 0.024381341 0.54132295
-0.073779464 0.021754757 0.53942263
-0.073547825 0.019150205 0.53766459
-0.073921129 0.016698282 0.54033631
-0.073440872 0.014057238 0.5367766
-0.073257141 0.011495846 0.53539234
-0.073356986 0.0089818472 0.53608876
-0.073331445 0.0064499332 0.53587687
-0.072116829 0.0038561998 0.52698427
-0.072213471 0.0013711338 0.52768189
-0.071983606 -0.0011155375 0.52600175
-0.072491147 -0.003623212 0.52971828
-0.073013023 -0.0061671026 0.53354794
-0.073264174 -0.0087147821 0.5354076
-0.16745773 -0.10076449 1.2262748
-0.1605196 -0.11319584 1.1762782
-0.16016665 -0.11847018 1.1739728
-0.16791199 -0.14736049 1.2319483
-0.17029266 -0.15532221 1.2497197
-0.15507784 -0.18957475 1.1402591
-0.16277131 -0.21581881 1.1973439
-0.15995143 -0.22862737 1.1769084
-0.15856336 -0.2321113 1.1667447
-0.24472092 -0.45950061 1.7972965
-0.090210222 -0.19115925 0.65993112
